# .PCD v0.7 - Point Cloud Data file format
VERSION 0.7
FIELDS x y z
SIZE 4 4 4
TYPE F F F
COUNT 1 1 1
WIDTH 1284
HEIGHT 1
VIEWPOINT 0 0 0 1 0 0 0
POINTS 1284
DATA ascii
0.014465223 -0.011021822 0.43800002
0.01494624 -0.011021822 0.43800002
0.015427258 -0.011021822 0.43800002
0.015908275 -0.011021822 0.43800002
0.016389292 -0.011021822 0.43800002
0.016908826 -0.011046985 0.43900001
0.017390942 -0.011046985 0.43900001
0.017873058 -0.011046985 0.43900001
0.018355174 -0.011046985 0.43900001
0.018880198 -0.01107215 0.44000003
0.019363411 -0.01107215 0.44000003
0.019846626 -0.01107215 0.44000003
0.020329839 -0.01107215 0.44000003
0.020860355 -0.011097314 0.44100001
0.021344667 -0.011097314 0.44100001
0.021878477 -0.011122477 0.44200003
0.022363888 -0.011122477 0.44200003
0.022900993 -0.011147642 0.44300002
0.023387503 -0.011147642 0.44300002
0.023874011 -0.011147642 0.44300002
0.024360519 -0.011147642 0.44300002
0.024847027 -0.011147642 0.44300002
0.025390722 -0.011172806 0.44400004
0.025878329 -0.011172806 0.44400004
0.026425319 -0.011197969 0.44500002
0.026914023 -0.011197969 0.44500002
0.027464308 -0.011223134 0.44600001
0.027954111 -0.011223134 0.44600001
0.028507689 -0.011248298 0.44700003
0.028998591 -0.011248298 0.44700003
0.029555464 -0.011273461 0.44800001
0.030047463 -0.011273461 0.44800001
0.030607631 -0.011298626 0.44900003
0.031100729 -0.011298626 0.44900003
0.031664193 -0.01132379 0.45000002
0.03215839 -0.01132379 0.45000002
0.032725144 -0.011348953 0.45100003
0.03322044 -0.011348953 0.45100003
0.033790492 -0.011374118 0.45200002
0.034286883 -0.011374118 0.45200002
0.034783278 -0.011374118 0.45200002
0.035357721 -0.011399282 0.45300001
0.035855211 -0.011399282 0.45300001
0.036432952 -0.011424446 0.45400003
0.036931541 -0.011424446 0.45400003
0.037512571 -0.01144961 0.45500001
0.038012259 -0.01144961 0.45500001
0.038596589 -0.011474773 0.45600003
0.039097376 -0.011474773 0.45600003
0.039684996 -0.011499938 0.45700002
0.040186878 -0.011499938 0.45700002
-0.09894605 -0.011237671 0.46700001
-0.098433189 -0.011237671 0.46700001
-0.097710639 -0.011213607 0.46600002
-0.097198874 -0.011213607 0.46600002
-0.096479625 -0.011189544 0.46500003
-0.095968954 -0.011189544 0.46500003
-0.095458284 -0.011189544 0.46500003
-0.094947614 -0.011189544 0.46500003
-0.094233856 -0.011165481 0.46400002
-0.093724281 -0.011165481 0.46400002
-0.093214713 -0.011165481 0.46400002
-0.092505343 -0.011141418 0.46300003
-0.091996871 -0.011141418 0.46300003
-0.091290802 -0.011117354 0.46200001
-0.090783432 -0.011117354 0.46200001
-0.090276055 -0.011117354 0.46200001
-0.089768678 -0.011117354 0.46200001
-0.089261308 -0.011117354 0.46200001
-0.088753931 -0.011117354 0.46200001
-0.088055544 -0.011093291 0.46100003
-0.087549269 -0.011093291 0.46100003
-0.087042995 -0.011093291 0.46100003
-0.086536713 -0.011093291 0.46100003
-0.086030439 -0.011093291 0.46100003
-0.085338645 -0.011069226 0.46000001
-0.084833466 -0.011069226 0.46000001
-0.084328286 -0.011069226 0.46000001
-0.065892436 -0.010780464 0.44800001
-0.065400437 -0.010780464 0.44800001
-0.064908437 -0.010780464 0.44800001
-0.06427265 -0.0107564 0.44700003
-0.063781746 -0.0107564 0.44700003
-0.063149258 -0.010732337 0.44600001
-0.062659457 -0.010732337 0.44600001
-0.062030256 -0.010708273 0.44500002
-0.061541554 -0.010708273 0.44500002
-0.061052848 -0.010708273 0.44500002
-0.060564142 -0.010708273 0.44500002
-0.059940439 -0.010684209 0.44400004
-0.059452832 -0.010684209 0.44400004
-0.058965225 -0.010684209 0.44400004
-0.05834591 -0.010660145 0.44300002
-0.057859402 -0.010660145 0.44300002
-0.057243388 -0.010636082 0.44200003
-0.056757975 -0.010636082 0.44200003
-0.056017939 -0.010587955 0.44000003
-0.055534724 -0.010587955 0.44000003
-0.054926392 -0.010563891 0.43900001
-0.054444276 -0.010563891 0.43900001
-0.05396216 -0.010563891 0.43900001
-0.053358227 -0.010539828 0.43800002
-0.05287721 -0.010539828 0.43800002
-0.052276563 -0.010515764 0.43700001
-0.051796645 -0.010515764 0.43700001
-0.051081866 -0.010467637 0.43500003
-0.050604142 -0.010467637 0.43500003
-0.050011188 -0.010443574 0.43400002
-0.049534567 -0.010443574 0.43400002
-0.049057942 -0.010443574 0.43400002
-0.048469376 -0.01041951 0.43300003
-0.04799385 -0.01041951 0.43300003
-0.047518324 -0.01041951 0.43300003
-0.047042798 -0.01041951 0.43300003
-0.046459727 -0.010395447 0.43200001
-0.0459853 -0.010395447 0.43200001
-0.045405518 -0.010371384 0.43100002
-0.04493219 -0.010371384 0.43100002
-0.044458859 -0.010371384 0.43100002
-0.043883473 -0.010347321 0.43000001
-0.04341124 -0.010347321 0.43000001
-0.042839155 -0.010323257 0.42900002
-0.042368021 -0.010323257 0.42900002
-0.041896887 -0.010323257 0.42900002
-0.041425753 -0.010323257 0.42900002
-0.040859152 -0.010299194 0.42800003
-0.040389117 -0.010299194 0.42800003
-0.039919082 -0.010299194 0.42800003
-0.039449047 -0.010299194 0.42800003
-0.038979013 -0.010299194 0.42800003
-0.038508978 -0.010299194 0.42800003
-0.038038943 -0.010299194 0.42800003
-0.037568908 -0.010299194 0.42800003
-0.03709887 -0.010299194 0.42800003
-0.036628835 -0.010299194 0.42800003
-0.0361588 -0.010299194 0.42800003
-0.035688769 -0.010299194 0.42800003
-0.035218734 -0.010299194 0.42800003
-0.034748696 -0.010299194 0.42800003
-0.034278661 -0.010299194 0.42800003
-0.033808626 -0.010299194 0.42800003
-0.033338591 -0.010299194 0.42800003
-0.032868557 -0.010299194 0.42800003
-0.032398522 -0.010299194 0.42800003
-0.031928487 -0.010299194 0.42800003
-0.031458452 -0.010299194 0.42800003
-0.030988416 -0.010299194 0.42800003
-0.030518381 -0.010299194 0.42800003
-0.030048344 -0.010299194 0.42800003
-0.02957831 -0.010299194 0.42800003
-0.029108275 -0.010299194 0.42800003
-0.02863824 -0.010299194 0.42800003
-0.028168203 -0.010299194 0.42800003
-0.027698169 -0.010299194 0.42800003
-0.027228134 -0.010299194 0.42800003
-0.026758099 -0.010299194 0.42800003
-0.026288062 -0.010299194 0.42800003
-0.025878351 -0.010323257 0.42900002
-0.025407217 -0.010323257 0.42900002
-0.024936084 -0.010323257 0.42900002
-0.02446495 -0.010323257 0.42900002
-0.023993816 -0.010323257 0.42900002
-0.023522682 -0.010323257 0.42900002
-0.023105282 -0.010347321 0.43000001
-0.022633051 -0.010347321 0.43000001
-0.022160819 -0.010347321 0.43000001
-0.021688588 -0.010347321 0.43000001
-0.021216355 -0.010347321 0.43000001
-0.020744124 -0.010347321 0.43000001
-0.020319037 -0.010371384 0.43100002
-0.019845707 -0.010371384 0.43100002
-0.019372378 -0.010371384 0.43100002
-0.018899048 -0.010371384 0.43100002
-0.018425718 -0.010371384 0.43100002
-0.017952388 -0.010371384 0.43100002
-0.017479058 -0.010371384 0.43100002
-0.017045183 -0.010395447 0.43200001
-0.016570756 -0.010395447 0.43200001
-0.016096327 -0.010395447 0.43200001
-0.0156219 -0.010395447 0.43200001
-0.015182535 -0.01041951 0.43300003
-0.014707008 -0.01041951 0.43300003
-0.014231483 -0.01041951 0.43300003
-0.013755956 -0.01041951 0.43300003
-0.01328043 -0.01041951 0.43300003
-0.012804904 -0.01041951 0.43300003
-0.012329377 -0.01041951 0.43300003
-0.011853851 -0.01041951 0.43300003
-0.011378325 -0.01041951 0.43300003
-0.010927978 -0.010443574 0.43400002
-0.010451353 -0.010443574 0.43400002
-0.0099747293 -0.010443574 0.43400002
-0.0094981045 -0.010443574 0.43400002
-0.0090214796 -0.010443574 0.43400002
-0.0085448558 -0.010443574 0.43400002
-0.0080682309 -0.010443574 0.43400002
-0.0075916066 -0.010443574 0.43400002
-0.0071149818 -0.010443574 0.43400002
-0.0066383574 -0.010443574 0.43400002
-0.0061759311 -0.010467637 0.43500003
-0.0056982082 -0.010467637 0.43500003
-0.0052204854 -0.010467637 0.43500003
-0.0047427625 -0.010467637 0.43500003
-0.0042650402 -0.010467637 0.43500003
-0.0037873173 -0.010467637 0.43500003
-0.0033095945 -0.010467637 0.43500003
-0.0028318719 -0.010467637 0.43500003
-0.002354149 -0.010467637 0.43500003
-0.0018764263 -0.010467637 0.43500003
-0.0013987035 -0.010467637 0.43500003
-0.00092098082 -0.010467637 0.43500003
-0.00044325809 -0.010467637 0.43500003
3.4464614e-05 -0.010467637 0.43500003
0.00051218731 -0.010467637 0.43500003
0.0009899101 -0.010467637 0.43500003
0.0014676328 -0.010467637 0.43500003
0.0019453554 -0.010467637 0.43500003
0.0024286485 -0.010491701 0.43600002
0.0029074694 -0.010491701 0.43600002
0.0033862903 -0.010491701 0.43600002
0.0038651114 -0.010491701 0.43600002
0.004343932 -0.010491701 0.43600002
0.0048227534 -0.010491701 0.43600002
0.0053015742 -0.010491701 0.43600002
0.0057803951 -0.010491701 0.43600002
0.0062735719 -0.010515764 0.43700001
0.0067534912 -0.010515764 0.43700001
0.0072334106 -0.010515764 0.43700001
0.0077133295 -0.010515764 0.43700001
0.0081932489 -0.010515764 0.43700001
0.0086731678 -0.010515764 0.43700001
0.0091530867 -0.010515764 0.43700001
0.0096330056 -0.010515764 0.43700001
0.010112925 -0.010515764 0.43700001
0.010592843 -0.010515764 0.43700001
0.011072763 -0.010515764 0.43700001
0.011552682 -0.010515764 0.43700001
0.012032601 -0.010515764 0.43700001
0.012512521 -0.010515764 0.43700001
0.01299244 -0.010515764 0.43700001
0.013472359 -0.010515764 0.43700001
0.013952278 -0.010515764 0.43700001
0.014465223 -0.010539828 0.43800002
0.01494624 -0.010539828 0.43800002
0.015427258 -0.010539828 0.43800002
0.015908275 -0.010539828 0.43800002
0.016389292 -0.010539828 0.43800002
0.016908826 -0.010563891 0.43900001
0.017390942 -0.010563891 0.43900001
0.017873058 -0.010563891 0.43900001
0.018355174 -0.010563891 0.43900001
0.018880198 -0.010587955 0.44000003
0.019363411 -0.010587955 0.44000003
0.019846626 -0.010587955 0.44000003
0.020329839 -0.010587955 0.44000003
0.020860355 -0.010612018 0.44100001
0.021344667 -0.010612018 0.44100001
0.021878477 -0.010636082 0.44200003
0.022363888 -0.010636082 0.44200003
0.022900993 -0.010660145 0.44300002
0.023387503 -0.010660145 0.44300002
0.023874011 -0.010660145 0.44300002
0.024360519 -0.010660145 0.44300002
0.024847027 -0.010660145 0.44300002
0.025390722 -0.010684209 0.44400004
0.025878329 -0.010684209 0.44400004
0.026425319 -0.010708273 0.44500002
0.026914023 -0.010708273 0.44500002
0.027464308 -0.010732337 0.44600001
0.027954111 -0.010732337 0.44600001
0.028507689 -0.0107564 0.44700003
0.028998591 -0.0107564 0.44700003
0.029555464 -0.010780464 0.44800001
0.030047463 -0.010780464 0.44800001
0.030607631 -0.010804527 0.44900003
0.031100729 -0.010804527 0.44900003
0.031664193 -0.010828591 0.45000002
0.03215839 -0.010828591 0.45000002
0.032725144 -0.010852654 0.45100003
0.03322044 -0.010852654 0.45100003
0.033790492 -0.010876718 0.45200002
0.034286883 -0.010876718 0.45200002
0.034783278 -0.010876718 0.45200002
0.035357721 -0.010900781 0.45300001
0.035855211 -0.010900781 0.45300001
0.036432952 -0.010924845 0.45400003
0.036931541 -0.010924845 0.45400003
0.03743013 -0.010924845 0.45400003
0.037928715 -0.010924845 0.45400003
0.038511947 -0.010948909 0.45500001
0.039011631 -0.010948909 0.45500001
0.039598159 -0.010972972 0.45600003
0.040098947 -0.010972972 0.45600003
0.040688764 -0.010997036 0.45700002
0.041190647 -0.010997036 0.45700002
-0.09894605 -0.010723764 0.46700001
-0.098433189 -0.010723764 0.46700001
-0.097710639 -0.010700801 0.46600002
-0.097198874 -0.010700801 0.46600002
-0.096479625 -0.010677838 0.46500003
-0.095968954 -0.010677838 0.46500003
-0.095458284 -0.010677838 0.46500003
-0.094947614 -0.010677838 0.46500003
-0.094233856 -0.010654876 0.46400002
-0.093724281 -0.010654876 0.46400002
-0.093214713 -0.010654876 0.46400002
-0.092505343 -0.010631912 0.46300003
-0.091996871 -0.010631912 0.46300003
-0.091290802 -0.01060895 0.46200001
-0.090783432 -0.01060895 0.46200001
-0.090276055 -0.01060895 0.46200001
-0.089768678 -0.01060895 0.46200001
-0.089261308 -0.01060895 0.46200001
-0.088753931 -0.01060895 0.46200001
-0.088055544 -0.010585986 0.46100003
-0.087549269 -0.010585986 0.46100003
-0.087042995 -0.010585986 0.46100003
-0.086536713 -0.010585986 0.46100003
-0.086030439 -0.010585986 0.46100003
-0.085338645 -0.010563023 0.46000001
-0.084833466 -0.010563023 0.46000001
-0.084328286 -0.010563023 0.46000001
-0.065892436 -0.010287466 0.44800001
-0.065400437 -0.010287466 0.44800001
-0.064908437 -0.010287466 0.44800001
-0.06427265 -0.010264503 0.44700003
-0.063781746 -0.010264503 0.44700003
-0.063149258 -0.010241539 0.44600001
-0.062659457 -0.010241539 0.44600001
-0.062030256 -0.010218577 0.44500002
-0.061541554 -0.010218577 0.44500002
-0.061052848 -0.010218577 0.44500002
-0.060564142 -0.010218577 0.44500002
-0.059940439 -0.010195613 0.44400004
-0.059452832 -0.010195613 0.44400004
-0.058965225 -0.010195613 0.44400004
-0.05834591 -0.01017265 0.44300002
-0.057859402 -0.01017265 0.44300002
-0.057243388 -0.010149687 0.44200003
-0.056757975 -0.010149687 0.44200003
-0.056017939 -0.01010376 0.44000003
-0.055534724 -0.01010376 0.44000003
-0.054926392 -0.010080798 0.43900001
-0.054444276 -0.010080798 0.43900001
-0.05396216 -0.010080798 0.43900001
-0.053358227 -0.010057835 0.43800002
-0.05287721 -0.010057835 0.43800002
-0.052276563 -0.010034871 0.43700001
-0.051796645 -0.010034871 0.43700001
-0.051081866 -0.009988945 0.43500003
-0.050604142 -0.009988945 0.43500003
-0.050011188 -0.0099659823 0.43400002
-0.049534567 -0.0099659823 0.43400002
-0.049057942 -0.0099659823 0.43400002
-0.048469376 -0.0099430187 0.43300003
-0.04799385 -0.0099430187 0.43300003
-0.047518324 -0.0099430187 0.43300003
-0.047042798 -0.0099430187 0.43300003
-0.046459727 -0.009920056 0.43200001
-0.0459853 -0.009920056 0.43200001
-0.045405518 -0.0098970933 0.43100002
-0.04493219 -0.0098970933 0.43100002
-0.044458859 -0.0098970933 0.43100002
-0.043883473 -0.0098741306 0.43000001
-0.04341124 -0.0098741306 0.43000001
-0.042839155 -0.009851167 0.42900002
-0.042368021 -0.009851167 0.42900002
-0.041896887 -0.009851167 0.42900002
-0.041425753 -0.009851167 0.42900002
-0.040859152 -0.0098282043 0.42800003
-0.040389117 -0.0098282043 0.42800003
-0.039919082 -0.0098282043 0.42800003
-0.039449047 -0.0098282043 0.42800003
-0.038979013 -0.0098282043 0.42800003
-0.038508978 -0.0098282043 0.42800003
-0.038038943 -0.0098282043 0.42800003
-0.037568908 -0.0098282043 0.42800003
-0.03709887 -0.0098282043 0.42800003
-0.036628835 -0.0098282043 0.42800003
-0.0361588 -0.0098282043 0.42800003
-0.035688769 -0.0098282043 0.42800003
-0.035218734 -0.0098282043 0.42800003
-0.034748696 -0.0098282043 0.42800003
-0.034278661 -0.0098282043 0.42800003
-0.033808626 -0.0098282043 0.42800003
-0.033338591 -0.0098282043 0.42800003
-0.032868557 -0.0098282043 0.42800003
-0.032398522 -0.0098282043 0.42800003
-0.031928487 -0.0098282043 0.42800003
-0.031458452 -0.0098282043 0.42800003
-0.030988416 -0.0098282043 0.42800003
-0.030518381 -0.0098282043 0.42800003
-0.030048344 -0.0098282043 0.42800003
-0.02957831 -0.0098282043 0.42800003
-0.029108275 -0.0098282043 0.42800003
-0.02863824 -0.0098282043 0.42800003
-0.028168203 -0.0098282043 0.42800003
-0.027698169 -0.0098282043 0.42800003
-0.027228134 -0.0098282043 0.42800003
-0.026758099 -0.0098282043 0.42800003
-0.026288062 -0.0098282043 0.42800003
-0.025818028 -0.0098282043 0.42800003
-0.025347993 -0.0098282043 0.42800003
-0.024936084 -0.009851167 0.42900002
-0.02446495 -0.009851167 0.42900002
-0.023993816 -0.009851167 0.42900002
-0.023522682 -0.009851167 0.42900002
-0.023105282 -0.0098741306 0.43000001
-0.022633051 -0.0098741306 0.43000001
-0.022160819 -0.0098741306 0.43000001
-0.021688588 -0.0098741306 0.43000001
-0.021216355 -0.0098741306 0.43000001
-0.020744124 -0.0098741306 0.43000001
-0.020271894 -0.0098741306 0.43000001
-0.019799661 -0.0098741306 0.43000001
-0.01932743 -0.0098741306 0.43000001
-0.018899048 -0.0098970933 0.43100002
-0.018425718 -0.0098970933 0.43100002
-0.017952388 -0.0098970933 0.43100002
-0.017479058 -0.0098970933 0.43100002
-0.017045183 -0.009920056 0.43200001
-0.016570756 -0.009920056 0.43200001
-0.016096327 -0.009920056 0.43200001
-0.0156219 -0.009920056 0.43200001
-0.015147472 -0.009920056 0.43200001
-0.014673044 -0.009920056 0.43200001
-0.014198615 -0.009920056 0.43200001
-0.013724187 -0.009920056 0.43200001
-0.01328043 -0.0099430187 0.43300003
-0.012804904 -0.0099430187 0.43300003
-0.012329377 -0.0099430187 0.43300003
-0.011853851 -0.0099430187 0.43300003
-0.011378325 -0.0099430187 0.43300003
-0.010902799 -0.0099430187 0.43300003
-0.010427272 -0.0099430187 0.43300003
-0.0099517461 -0.0099430187 0.43300003
-0.0094762193 -0.0099430187 0.43300003
-0.0090214796 -0.0099659823 0.43400002
-0.0085448558 -0.0099659823 0.43400002
-0.0080682309 -0.0099659823 0.43400002
-0.0075916066 -0.0099659823 0.43400002
-0.0071149818 -0.0099659823 0.43400002
-0.0066383574 -0.0099659823 0.43400002
-0.0061617331 -0.0099659823 0.43400002
-0.0056851082 -0.0099659823 0.43400002
-0.0052084839 -0.0099659823 0.43400002
-0.0047318595 -0.0099659823 0.43400002
-0.0042552352 -0.0099659823 0.43400002
-0.0037786106 -0.0099659823 0.43400002
-0.0033019863 -0.0099659823 0.43400002
-0.0028253617 -0.0099659823 0.43400002
-0.0023487371 -0.0099659823 0.43400002
-0.0018764263 -0.009988945 0.43500003
-0.0013987035 -0.009988945 0.43500003
-0.00092098082 -0.009988945 0.43500003
-0.00044325809 -0.009988945 0.43500003
3.4464614e-05 -0.009988945 0.43500003
0.00051218731 -0.009988945 0.43500003
0.0009899101 -0.009988945 0.43500003
0.0014676328 -0.009988945 0.43500003
0.0019453554 -0.009988945 0.43500003
0.0024230781 -0.009988945 0.43500003
0.0029008009 -0.009988945 0.43500003
0.0033862903 -0.010011909 0.43600002
0.0038651114 -0.010011909 0.43600002
0.004343932 -0.010011909 0.43600002
0.0048227534 -0.010011909 0.43600002
0.0053015742 -0.010011909 0.43600002
0.0057803951 -0.010011909 0.43600002
0.006259216 -0.010011909 0.43600002
0.0067380369 -0.010011909 0.43600002
0.0072168577 -0.010011909 0.43600002
0.0076956786 -0.010011909 0.43600002
0.0081744995 -0.010011909 0.43600002
0.0086533204 -0.010011909 0.43600002
0.0091321422 -0.010011909 0.43600002
0.0096109631 -0.010011909 0.43600002
0.010089784 -0.010011909 0.43600002
0.010592843 -0.010034871 0.43700001
0.011072763 -0.010034871 0.43700001
0.011552682 -0.010034871 0.43700001
0.012032601 -0.010034871 0.43700001
0.012512521 -0.010034871 0.43700001
0.01299244 -0.010034871 0.43700001
0.013472359 -0.010034871 0.43700001
0.013952278 -0.010034871 0.43700001
0.014432197 -0.010034871 0.43700001
0.014912116 -0.010034871 0.43700001
0.015392035 -0.010034871 0.43700001
0.015871955 -0.010034871 0.43700001
0.016351873 -0.010034871 0.43700001
0.016870309 -0.010057835 0.43800002
0.017351327 -0.010057835 0.43800002
0.017832344 -0.010057835 0.43800002
0.018313363 -0.010057835 0.43800002
0.01883729 -0.010080798 0.43900001
0.019319406 -0.010080798 0.43900001
0.019801522 -0.010080798 0.43900001
0.020283636 -0.010080798 0.43900001
0.020813052 -0.01010376 0.44000003
0.021296266 -0.01010376 0.44000003
0.021779479 -0.01010376 0.44000003
0.022262694 -0.01010376 0.44000003
0.022745907 -0.01010376 0.44000003
0.023334708 -0.010149687 0.44200003
0.023820119 -0.010149687 0.44200003
0.024360519 -0.01017265 0.44300002
0.024847027 -0.01017265 0.44300002
0.025333535 -0.01017265 0.44300002
0.025820045 -0.01017265 0.44300002
0.026365936 -0.010195613 0.44400004
0.026853543 -0.010195613 0.44400004
0.027402729 -0.010218577 0.44500002
0.027891433 -0.010218577 0.44500002
0.028443914 -0.010241539 0.44600001
0.028933717 -0.010241539 0.44600001
0.02942352 -0.010241539 0.44600001
0.029913323 -0.010241539 0.44600001
0.030471295 -0.010264503 0.44700003
0.030962195 -0.010264503 0.44700003
0.031593826 -0.010310429 0.44900003
0.032086924 -0.010310429 0.44900003
0.032652583 -0.010333392 0.45000002
0.03314678 -0.010333392 0.45000002
0.033640977 -0.010333392 0.45000002
0.034211028 -0.010356355 0.45100003
0.034706321 -0.010356355 0.45100003
0.035279669 -0.010379318 0.45200002
0.03577606 -0.010379318 0.45200002
0.036352701 -0.010402282 0.45300001
0.036850192 -0.010402282 0.45300001
0.03743013 -0.010425244 0.45400003
0.037928715 -0.010425244 0.45400003
0.038511947 -0.010448207 0.45500001
0.039011631 -0.010448207 0.45500001
0.039598159 -0.010471171 0.45600003
0.040098947 -0.010471171 0.45600003
0.040688764 -0.010494133 0.45700002
0.041190647 -0.010494133 0.45700002
-0.09894605 -0.010209857 0.46700001
-0.098433189 -0.010209857 0.46700001
-0.097710639 -0.010187995 0.46600002
-0.097198874 -0.010187995 0.46600002
-0.096479625 -0.010166132 0.46500003
-0.095968954 -0.010166132 0.46500003
-0.095252991 -0.010144271 0.46400002
-0.094743423 -0.010144271 0.46400002
-0.094233856 -0.010144271 0.46400002
-0.093522288 -0.010122408 0.46300003
-0.093013816 -0.010122408 0.46300003
-0.092305556 -0.010100545 0.46200001
-0.091798179 -0.010100545 0.46200001
-0.091093205 -0.010078683 0.46100003
-0.090586923 -0.010078683 0.46100003
-0.090080649 -0.010078683 0.46100003
-0.089574374 -0.010078683 0.46100003
-0.0890681 -0.010078683 0.46100003
-0.088561818 -0.010078683 0.46100003
-0.088055544 -0.010078683 0.46100003
-0.087359354 -0.01005682 0.46000001
-0.086854175 -0.01005682 0.46000001
-0.086348996 -0.01005682 0.46000001
-0.085843824 -0.01005682 0.46000001
-0.085338645 -0.01005682 0.46000001
-0.084833466 -0.01005682 0.46000001
-0.084328286 -0.01005682 0.46000001
-0.065892436 -0.0097944681 0.44800001
-0.065400437 -0.0097944681 0.44800001
-0.064908437 -0.0097944681 0.44800001
-0.063149258 -0.0097507425 0.44600001
-0.062659457 -0.0097507425 0.44600001
-0.062030256 -0.0097288797 0.44500002
-0.061541554 -0.0097288797 0.44500002
-0.061052848 -0.0097288797 0.44500002
-0.060564142 -0.0097288797 0.44500002
-0.059940439 -0.0097070169 0.44400004
-0.059452832 -0.0097070169 0.44400004
-0.058965225 -0.0097070169 0.44400004
-0.05834591 -0.0096851541 0.44300002
-0.057859402 -0.0096851541 0.44300002
-0.057243388 -0.0096632913 0.44200003
-0.056757975 -0.0096632913 0.44200003
-0.056017939 -0.0096195666 0.44000003
-0.055534724 -0.0096195666 0.44000003
-0.054926392 -0.0095977038 0.43900001
-0.054444276 -0.0095977038 0.43900001
-0.05396216 -0.0095977038 0.43900001
-0.053358227 -0.009575841 0.43800002
-0.05287721 -0.009575841 0.43800002
-0.052276563 -0.0095539782 0.43700001
-0.051796645 -0.0095539782 0.43700001
-0.051081866 -0.0095102526 0.43500003
-0.050604142 -0.0095102526 0.43500003
-0.050011188 -0.0094883898 0.43400002
-0.049534567 -0.0094883898 0.43400002
-0.049057942 -0.0094883898 0.43400002
-0.048469376 -0.009466527 0.43300003
-0.04799385 -0.009466527 0.43300003
-0.047518324 -0.009466527 0.43300003
-0.047042798 -0.009466527 0.43300003
-0.046459727 -0.0094446652 0.43200001
-0.0459853 -0.0094446652 0.43200001
-0.045405518 -0.0094228033 0.43100002
-0.04493219 -0.0094228033 0.43100002
-0.044458859 -0.0094228033 0.43100002
-0.043883473 -0.0094009405 0.43000001
-0.04341124 -0.0094009405 0.43000001
-0.042839155 -0.0093790777 0.42900002
-0.042368021 -0.0093790777 0.42900002
-0.041896887 -0.0093790777 0.42900002
-0.041425753 -0.0093790777 0.42900002
-0.040859152 -0.0093572149 0.42800003
-0.040389117 -0.0093572149 0.42800003
-0.039919082 -0.0093572149 0.42800003
-0.039449047 -0.0093572149 0.42800003
-0.038979013 -0.0093572149 0.42800003
-0.038508978 -0.0093572149 0.42800003
-0.038038943 -0.0093572149 0.42800003
-0.037568908 -0.0093572149 0.42800003
-0.03709887 -0.0093572149 0.42800003
-0.036628835 -0.0093572149 0.42800003
-0.0361588 -0.0093572149 0.42800003
-0.035688769 -0.0093572149 0.42800003
-0.035218734 -0.0093572149 0.42800003
-0.034748696 -0.0093572149 0.42800003
-0.034278661 -0.0093572149 0.42800003
-0.033808626 -0.0093572149 0.42800003
-0.033338591 -0.0093572149 0.42800003
-0.032868557 -0.0093572149 0.42800003
-0.032398522 -0.0093572149 0.42800003
-0.031928487 -0.0093572149 0.42800003
-0.031458452 -0.0093572149 0.42800003
-0.030988416 -0.0093572149 0.42800003
-0.030518381 -0.0093572149 0.42800003
-0.030048344 -0.0093572149 0.42800003
-0.02957831 -0.0093572149 0.42800003
-0.029108275 -0.0093572149 0.42800003
-0.02863824 -0.0093572149 0.42800003
-0.028168203 -0.0093572149 0.42800003
-0.027698169 -0.0093572149 0.42800003
-0.027228134 -0.0093572149 0.42800003
-0.026758099 -0.0093572149 0.42800003
-0.026288062 -0.0093572149 0.42800003
-0.025818028 -0.0093572149 0.42800003
-0.025347993 -0.0093572149 0.42800003
-0.024936084 -0.0093790777 0.42900002
-0.02446495 -0.0093790777 0.42900002
-0.023993816 -0.0093790777 0.42900002
-0.023522682 -0.0093790777 0.42900002
-0.023105282 -0.0094009405 0.43000001
-0.022633051 -0.0094009405 0.43000001
-0.022160819 -0.0094009405 0.43000001
-0.021688588 -0.0094009405 0.43000001
-0.021216355 -0.0094009405 0.43000001
-0.020744124 -0.0094009405 0.43000001
-0.020271894 -0.0094009405 0.43000001
-0.019799661 -0.0094009405 0.43000001
-0.01932743 -0.0094009405 0.43000001
-0.018899048 -0.0094228033 0.43100002
-0.018425718 -0.0094228033 0.43100002
-0.017952388 -0.0094228033 0.43100002
-0.017479058 -0.0094228033 0.43100002
-0.017045183 -0.0094446652 0.43200001
-0.016570756 -0.0094446652 0.43200001
-0.016096327 -0.0094446652 0.43200001
-0.0156219 -0.0094446652 0.43200001
-0.015147472 -0.0094446652 0.43200001
-0.014673044 -0.0094446652 0.43200001
-0.014198615 -0.0094446652 0.43200001
-0.013724187 -0.0094446652 0.43200001
-0.01328043 -0.009466527 0.43300003
-0.012804904 -0.009466527 0.43300003
-0.012329377 -0.009466527 0.43300003
-0.011853851 -0.009466527 0.43300003
-0.011378325 -0.009466527 0.43300003
-0.010902799 -0.009466527 0.43300003
-0.010427272 -0.009466527 0.43300003
-0.0099517461 -0.009466527 0.43300003
-0.0094762193 -0.009466527 0.43300003
-0.0090214796 -0.0094883898 0.43400002
-0.0085448558 -0.0094883898 0.43400002
-0.0080682309 -0.0094883898 0.43400002
-0.0075916066 -0.0094883898 0.43400002
-0.0071149818 -0.0094883898 0.43400002
-0.0066383574 -0.0094883898 0.43400002
-0.0061617331 -0.0094883898 0.43400002
-0.0056851082 -0.0094883898 0.43400002
-0.0052084839 -0.0094883898 0.43400002
-0.0047318595 -0.0094883898 0.43400002
-0.0042552352 -0.0094883898 0.43400002
-0.0037786106 -0.0094883898 0.43400002
-0.0033019863 -0.0094883898 0.43400002
-0.0028253617 -0.0094883898 0.43400002
-0.0023487371 -0.0094883898 0.43400002
-0.0018764263 -0.0095102526 0.43500003
-0.0013987035 -0.0095102526 0.43500003
-0.00092098082 -0.0095102526 0.43500003
-0.00044325809 -0.0095102526 0.43500003
3.4464614e-05 -0.0095102526 0.43500003
0.00051218731 -0.0095102526 0.43500003
0.0009899101 -0.0095102526 0.43500003
0.0014676328 -0.0095102526 0.43500003
0.0019453554 -0.0095102526 0.43500003
0.0024230781 -0.0095102526 0.43500003
0.0029008009 -0.0095102526 0.43500003
0.0033862903 -0.0095321154 0.43600002
0.0038651114 -0.0095321154 0.43600002
0.004343932 -0.0095321154 0.43600002
0.0048227534 -0.0095321154 0.43600002
0.0053015742 -0.0095321154 0.43600002
0.0057803951 -0.0095321154 0.43600002
0.006259216 -0.0095321154 0.43600002
0.0067380369 -0.0095321154 0.43600002
0.0072168577 -0.0095321154 0.43600002
0.0076956786 -0.0095321154 0.43600002
0.0081744995 -0.0095321154 0.43600002
0.0086533204 -0.0095321154 0.43600002
0.0091321422 -0.0095321154 0.43600002
0.0096109631 -0.0095321154 0.43600002
0.010089784 -0.0095321154 0.43600002
0.010592843 -0.0095539782 0.43700001
0.011072763 -0.0095539782 0.43700001
0.011552682 -0.0095539782 0.43700001
0.012032601 -0.0095539782 0.43700001
0.012512521 -0.0095539782 0.43700001
0.01299244 -0.0095539782 0.43700001
0.013472359 -0.0095539782 0.43700001
0.013952278 -0.0095539782 0.43700001
0.014432197 -0.0095539782 0.43700001
0.014912116 -0.0095539782 0.43700001
0.015392035 -0.0095539782 0.43700001
0.015871955 -0.0095539782 0.43700001
0.016351873 -0.0095539782 0.43700001
0.016870309 -0.009575841 0.43800002
0.017351327 -0.009575841 0.43800002
0.017832344 -0.009575841 0.43800002
0.018313363 -0.009575841 0.43800002
0.01883729 -0.0095977038 0.43900001
0.019319406 -0.0095977038 0.43900001
0.019801522 -0.0095977038 0.43900001
0.020283636 -0.0095977038 0.43900001
0.020813052 -0.0096195666 0.44000003
0.021296266 -0.0096195666 0.44000003
0.021779479 -0.0096195666 0.44000003
0.022262694 -0.0096195666 0.44000003
0.022745907 -0.0096195666 0.44000003
0.023334708 -0.0096632913 0.44200003
0.023820119 -0.0096632913 0.44200003
0.024360519 -0.0096851541 0.44300002
0.024847027 -0.0096851541 0.44300002
0.025333535 -0.0096851541 0.44300002
0.025820045 -0.0096851541 0.44300002
0.026365936 -0.0097070169 0.44400004
0.026853543 -0.0097070169 0.44400004
0.027402729 -0.0097288797 0.44500002
0.027891433 -0.0097288797 0.44500002
0.028443914 -0.0097507425 0.44600001
0.028933717 -0.0097507425 0.44600001
0.02942352 -0.0097507425 0.44600001
0.029913323 -0.0097507425 0.44600001
0.030471295 -0.0097726053 0.44700003
0.030962195 -0.0097726053 0.44700003
0.031593826 -0.0098163309 0.44900003
0.032086924 -0.0098163309 0.44900003
0.032652583 -0.0098381927 0.45000002
0.03314678 -0.0098381927 0.45000002
0.033640977 -0.0098381927 0.45000002
0.034211028 -0.0098600555 0.45100003
0.034706321 -0.0098600555 0.45100003
0.035279669 -0.0098819183 0.45200002
0.03577606 -0.0098819183 0.45200002
0.036352701 -0.0099037811 0.45300001
0.036850192 -0.0099037811 0.45300001
0.03743013 -0.0099256439 0.45400003
0.037928715 -0.0099256439 0.45400003
0.038511947 -0.0099475067 0.45500001
0.039011631 -0.0099475067 0.45500001
0.039598159 -0.0099693695 0.45600003
0.040098947 -0.0099693695 0.45600003
0.040688764 -0.0099912323 0.45700002
0.041190647 -0.0099912323 0.45700002
-0.096479625 -0.0096544269 0.46500003
-0.095968954 -0.0096544269 0.46500003
-0.095252991 -0.0096336659 0.46400002
-0.094743423 -0.0096336659 0.46400002
-0.094233856 -0.0096336659 0.46400002
-0.093522288 -0.009612903 0.46300003
-0.093013816 -0.009612903 0.46300003
-0.092305556 -0.009592141 0.46200001
-0.091798179 -0.009592141 0.46200001
-0.091093205 -0.0095713791 0.46100003
-0.090586923 -0.0095713791 0.46100003
-0.090080649 -0.0095713791 0.46100003
-0.089574374 -0.0095713791 0.46100003
-0.0890681 -0.0095713791 0.46100003
-0.088561818 -0.0095713791 0.46100003
-0.088055544 -0.0095713791 0.46100003
-0.087359354 -0.0095506171 0.46000001
-0.086854175 -0.0095506171 0.46000001
-0.086348996 -0.0095506171 0.46000001
-0.085843824 -0.0095506171 0.46000001
-0.085338645 -0.0095506171 0.46000001
-0.084833466 -0.0095506171 0.46000001
-0.084328286 -0.0095506171 0.46000001
-0.063149258 -0.0092599457 0.44600001
-0.062659457 -0.0092599457 0.44600001
-0.062030256 -0.0092391828 0.44500002
-0.061541554 -0.0092391828 0.44500002
-0.061052848 -0.0092391828 0.44500002
-0.060564142 -0.0092391828 0.44500002
-0.059940439 -0.0092184208 0.44400004
-0.059452832 -0.0092184208 0.44400004
-0.058965225 -0.0092184208 0.44400004
-0.05834591 -0.0091976589 0.44300002
-0.057859402 -0.0091976589 0.44300002
-0.057243388 -0.009176896 0.44200003
-0.056757975 -0.009176896 0.44200003
-0.056017939 -0.009135372 0.44000003
-0.055534724 -0.009135372 0.44000003
-0.054926392 -0.00911461 0.43900001
-0.054444276 -0.00911461 0.43900001
-0.05396216 -0.00911461 0.43900001
-0.053358227 -0.0090938471 0.43800002
-0.05287721 -0.0090938471 0.43800002
-0.052276563 -0.0090730852 0.43700001
-0.051796645 -0.0090730852 0.43700001
-0.051081866 -0.0090315603 0.43500003
-0.050604142 -0.0090315603 0.43500003
-0.050011188 -0.0090107992 0.43400002
-0.049534567 -0.0090107992 0.43400002
-0.049057942 -0.0090107992 0.43400002
-0.048469376 -0.0089900363 0.43300003
-0.04799385 -0.0089900363 0.43300003
-0.047518324 -0.0089900363 0.43300003
-0.047042798 -0.0089900363 0.43300003
-0.046459727 -0.0089692743 0.43200001
-0.0459853 -0.0089692743 0.43200001
-0.045405518 -0.0089485124 0.43100002
-0.04493219 -0.0089485124 0.43100002
-0.044458859 -0.0089485124 0.43100002
-0.043883473 -0.0089277504 0.43000001
-0.04341124 -0.0089277504 0.43000001
-0.042839155 -0.0089069875 0.42900002
-0.042368021 -0.0089069875 0.42900002
-0.041896887 -0.0089069875 0.42900002
-0.041425753 -0.0089069875 0.42900002
-0.040859152 -0.0088862255 0.42800003
-0.040389117 -0.0088862255 0.42800003
-0.039919082 -0.0088862255 0.42800003
-0.039449047 -0.0088862255 0.42800003
-0.038979013 -0.0088862255 0.42800003
-0.038508978 -0.0088862255 0.42800003
-0.038038943 -0.0088862255 0.42800003
-0.037568908 -0.0088862255 0.42800003
-0.03709887 -0.0088862255 0.42800003
-0.036628835 -0.0088862255 0.42800003
-0.0361588 -0.0088862255 0.42800003
-0.035688769 -0.0088862255 0.42800003
-0.035218734 -0.0088862255 0.42800003
-0.034748696 -0.0088862255 0.42800003
-0.034278661 -0.0088862255 0.42800003
-0.033808626 -0.0088862255 0.42800003
-0.033338591 -0.0088862255 0.42800003
-0.032868557 -0.0088862255 0.42800003
-0.032398522 -0.0088862255 0.42800003
-0.031928487 -0.0088862255 0.42800003
-0.031458452 -0.0088862255 0.42800003
-0.030988416 -0.0088862255 0.42800003
-0.030518381 -0.0088862255 0.42800003
-0.030048344 -0.0088862255 0.42800003
-0.02957831 -0.0088862255 0.42800003
-0.029108275 -0.0088862255 0.42800003
-0.02863824 -0.0088862255 0.42800003
-0.028168203 -0.0088862255 0.42800003
-0.027698169 -0.0088862255 0.42800003
-0.027228134 -0.0088862255 0.42800003
-0.026758099 -0.0088862255 0.42800003
-0.026288062 -0.0088862255 0.42800003
-0.025818028 -0.0088862255 0.42800003
-0.025347993 -0.0088862255 0.42800003
-0.024936084 -0.0089069875 0.42900002
-0.02446495 -0.0089069875 0.42900002
-0.023993816 -0.0089069875 0.42900002
-0.023522682 -0.0089069875 0.42900002
-0.023051551 -0.0089069875 0.42900002
-0.022580417 -0.0089069875 0.42900002
-0.022160819 -0.0089277504 0.43000001
-0.021688588 -0.0089277504 0.43000001
-0.021216355 -0.0089277504 0.43000001
-0.020744124 -0.0089277504 0.43000001
-0.020271894 -0.0089277504 0.43000001
-0.019799661 -0.0089277504 0.43000001
-0.01932743 -0.0089277504 0.43000001
-0.018899048 -0.0089485124 0.43100002
-0.018425718 -0.0089485124 0.43100002
-0.017952388 -0.0089485124 0.43100002
-0.017479058 -0.0089485124 0.43100002
-0.017005727 -0.0089485124 0.43100002
-0.016532397 -0.0089485124 0.43100002
-0.016096327 -0.0089692743 0.43200001
-0.0156219 -0.0089692743 0.43200001
-0.015147472 -0.0089692743 0.43200001
-0.014673044 -0.0089692743 0.43200001
-0.014198615 -0.0089692743 0.43200001
-0.013724187 -0.0089692743 0.43200001
-0.01324976 -0.0089692743 0.43200001
-0.012775331 -0.0089692743 0.43200001
-0.012300903 -0.0089692743 0.43200001
-0.011853851 -0.0089900363 0.43300003
-0.011378325 -0.0089900363 0.43300003
-0.010902799 -0.0089900363 0.43300003
-0.010427272 -0.0089900363 0.43300003
-0.0099517461 -0.0089900363 0.43300003
-0.0094762193 -0.0089900363 0.43300003
-0.0090006934 -0.0089900363 0.43300003
-0.0085251667 -0.0089900363 0.43300003
-0.0080496408 -0.0089900363 0.43300003
-0.0075741145 -0.0089900363 0.43300003
-0.0070985882 -0.0089900363 0.43300003
-0.0066230618 -0.0089900363 0.43300003
-0.0061475355 -0.0089900363 0.43300003
-0.0056720092 -0.0089900363 0.43300003
-0.0051964829 -0.0089900363 0.43300003
-0.0047318595 -0.0090107992 0.43400002
-0.0042552352 -0.0090107992 0.43400002
-0.0037786106 -0.0090107992 0.43400002
-0.0033019863 -0.0090107992 0.43400002
-0.0028253617 -0.0090107992 0.43400002
-0.0023487371 -0.0090107992 0.43400002
-0.0018721126 -0.0090107992 0.43400002
-0.0013954882 -0.0090107992 0.43400002
-0.00091886363 -0.0090107992 0.43400002
-0.00044223911 -0.0090107992 0.43400002
3.4464614e-05 -0.0090315603 0.43500003
0.00051218731 -0.0090315603 0.43500003
0.0009899101 -0.0090315603 0.43500003
0.0014676328 -0.0090315603 0.43500003
0.0019453554 -0.0090315603 0.43500003
0.0024230781 -0.0090315603 0.43500003
0.0029008009 -0.0090315603 0.43500003
0.0033785235 -0.0090315603 0.43500003
0.0038562461 -0.0090315603 0.43500003
0.0043339687 -0.0090315603 0.43500003
0.0048116916 -0.0090315603 0.43500003
0.0053015742 -0.0090523232 0.43600002
0.0057803951 -0.0090523232 0.43600002
0.006259216 -0.0090523232 0.43600002
0.0067380369 -0.0090523232 0.43600002
0.0072168577 -0.0090523232 0.43600002
0.0076956786 -0.0090523232 0.43600002
0.0081744995 -0.0090523232 0.43600002
0.0086533204 -0.0090523232 0.43600002
0.0091321422 -0.0090523232 0.43600002
0.0096109631 -0.0090523232 0.43600002
0.010089784 -0.0090523232 0.43600002
0.010568605 -0.0090523232 0.43600002
0.011047426 -0.0090523232 0.43600002
0.011526247 -0.0090523232 0.43600002
0.012005067 -0.0090523232 0.43600002
0.012483888 -0.0090523232 0.43600002
0.012962709 -0.0090523232 0.43600002
0.01344153 -0.0090523232 0.43600002
0.013920352 -0.0090523232 0.43600002
0.014399173 -0.0090523232 0.43600002
0.014912116 -0.0090730852 0.43700001
0.015392035 -0.0090730852 0.43700001
0.015871955 -0.0090730852 0.43700001
0.016351873 -0.0090730852 0.43700001
0.016831793 -0.0090730852 0.43700001
0.017311713 -0.0090730852 0.43700001
0.017832344 -0.0090938471 0.43800002
0.018313363 -0.0090938471 0.43800002
0.01879438 -0.0090938471 0.43800002
0.019275397 -0.0090938471 0.43800002
0.019756414 -0.0090938471 0.43800002
0.020237433 -0.0090938471 0.43800002
0.020765752 -0.00911461 0.43900001
0.021247867 -0.00911461 0.43900001
0.021779479 -0.009135372 0.44000003
0.022262694 -0.009135372 0.44000003
0.022745907 -0.009135372 0.44000003
0.023281915 -0.009156134 0.44100001
0.023766227 -0.009156134 0.44100001
0.02430553 -0.009176896 0.44200003
0.024790939 -0.009176896 0.44200003
0.025333535 -0.0091976589 0.44300002
0.025820045 -0.0091976589 0.44300002
0.026306553 -0.0091976589 0.44300002
0.026793061 -0.0091976589 0.44300002
0.02734115 -0.0092184208 0.44400004
0.027828755 -0.0092184208 0.44400004
0.028380137 -0.0092391828 0.44500002
0.028868843 -0.0092391828 0.44500002
0.029357547 -0.0092391828 0.44500002
0.029846253 -0.0092391828 0.44500002
0.030403126 -0.0092599457 0.44600001
0.030892929 -0.0092599457 0.44600001
0.031453095 -0.0092807077 0.44700003
0.031943999 -0.0092807077 0.44700003
0.032434899 -0.0092807077 0.44700003
0.03307312 -0.0093222316 0.44900003
0.033566218 -0.0093222316 0.44900003
0.03413517 -0.0093429945 0.45000002
0.034629367 -0.0093429945 0.45000002
0.035201617 -0.0093637565 0.45100003
0.035696909 -0.0093637565 0.45100003
0.036272451 -0.0093845185 0.45200002
0.036768846 -0.0093845185 0.45200002
0.037347682 -0.0094052814 0.45300001
0.037845172 -0.0094052814 0.45300001
0.038427304 -0.0094260434 0.45400003
0.038925894 -0.0094260434 0.45400003
0.039424483 -0.0094260434 0.45400003
0.039923072 -0.0094260434 0.45400003
0.040510692 -0.0094468053 0.45500001
0.04101038 -0.0094468053 0.45500001
-0.096479625 -0.0091427211 0.46500003
-0.095968954 -0.0091427211 0.46500003
-0.095047705 -0.0091033988 0.46300003
-0.094539233 -0.0091033988 0.46300003
-0.09403076 -0.0091033988 0.46300003
-0.093320303 -0.0090837367 0.46200001
-0.092812926 -0.0090837367 0.46200001
-0.092105754 -0.0090640755 0.46100003
-0.091599479 -0.0090640755 0.46100003
-0.090895601 -0.0090444135 0.46000001
-0.090390421 -0.0090444135 0.46000001
-0.089885242 -0.0090444135 0.46000001
-0.089380071 -0.0090444135 0.46000001
-0.088874891 -0.0090444135 0.46000001
-0.088369712 -0.0090444135 0.46000001
-0.087864533 -0.0090444135 0.46000001
-0.087359354 -0.0090444135 0.46000001
-0.086854175 -0.0090444135 0.46000001
-0.086161286 -0.0090247514 0.45900002
-0.085657202 -0.0090247514 0.45900002
-0.085153125 -0.0090247514 0.45900002
-0.084649041 -0.0090247514 0.45900002
-0.084144965 -0.0090247514 0.45900002
-0.083136804 -0.0090247514 0.45900002
-0.08263272 -0.0090247514 0.45900002
-0.082128644 -0.0090247514 0.45900002
-0.065892436 -0.0088084722 0.44800001
-0.065400437 -0.0088084722 0.44800001
-0.064908437 -0.0088084722 0.44800001
-0.06427265 -0.0087888101 0.44700003
-0.063781746 -0.0087888101 0.44700003
-0.063149258 -0.008769148 0.44600001
-0.062659457 -0.008769148 0.44600001
-0.062030256 -0.0087494869 0.44500002
-0.061541554 -0.0087494869 0.44500002
-0.060915653 -0.0087298248 0.44400004
-0.060428046 -0.0087298248 0.44400004
-0.059940439 -0.0087298248 0.44400004
-0.059318926 -0.0087101627 0.44300002
-0.058832418 -0.0087101627 0.44300002
-0.05834591 -0.0087101627 0.44300002
-0.057859402 -0.0087101627 0.44300002
-0.057243388 -0.0086905006 0.44200003
-0.056757975 -0.0086905006 0.44200003
-0.056017939 -0.0086511774 0.44000003
-0.055534724 -0.0086511774 0.44000003
-0.054926392 -0.0086315162 0.43900001
-0.054444276 -0.0086315162 0.43900001
-0.05396216 -0.0086315162 0.43900001
-0.053358227 -0.0086118542 0.43800002
-0.05287721 -0.0086118542 0.43800002
-0.052276563 -0.008592193 0.43700001
-0.051796645 -0.008592193 0.43700001
-0.051081866 -0.0085528689 0.43500003
-0.050604142 -0.0085528689 0.43500003
-0.050011188 -0.0085332068 0.43400002
-0.049534567 -0.0085332068 0.43400002
-0.049057942 -0.0085332068 0.43400002
-0.048469376 -0.0085135456 0.43300003
-0.04799385 -0.0085135456 0.43300003
-0.047408585 -0.0084938835 0.43200001
-0.046934154 -0.0084938835 0.43200001
-0.046352178 -0.0084742215 0.43100002
-0.04587885 -0.0084742215 0.43100002
-0.045405518 -0.0084742215 0.43100002
-0.04493219 -0.0084742215 0.43100002
-0.044458859 -0.0084742215 0.43100002
-0.043883473 -0.0084545603 0.43000001
-0.04341124 -0.0084545603 0.43000001
-0.042839155 -0.0084348982 0.42900002
-0.042368021 -0.0084348982 0.42900002
-0.041896887 -0.0084348982 0.42900002
-0.041425753 -0.0084348982 0.42900002
-0.040859152 -0.0084152361 0.42800003
-0.040389117 -0.0084152361 0.42800003
-0.039919082 -0.0084152361 0.42800003
-0.039449047 -0.0084152361 0.42800003
-0.038979013 -0.0084152361 0.42800003
-0.038508978 -0.0084152361 0.42800003
-0.038038943 -0.0084152361 0.42800003
-0.037568908 -0.0084152361 0.42800003
-0.03709887 -0.0084152361 0.42800003
-0.036628835 -0.0084152361 0.42800003
-0.0361588 -0.0084152361 0.42800003
-0.035688769 -0.0084152361 0.42800003
-0.035218734 -0.0084152361 0.42800003
-0.034748696 -0.0084152361 0.42800003
-0.034278661 -0.0084152361 0.42800003
-0.033808626 -0.0084152361 0.42800003
-0.033338591 -0.0084152361 0.42800003
-0.032868557 -0.0084152361 0.42800003
-0.032398522 -0.0084152361 0.42800003
-0.031928487 -0.0084152361 0.42800003
-0.031458452 -0.0084152361 0.42800003
-0.030988416 -0.0084152361 0.42800003
-0.030518381 -0.0084152361 0.42800003
-0.030048344 -0.0084152361 0.42800003
-0.02957831 -0.0084152361 0.42800003
-0.029108275 -0.0084152361 0.42800003
-0.02863824 -0.0084152361 0.42800003
-0.028168203 -0.0084152361 0.42800003
-0.027698169 -0.0084152361 0.42800003
-0.027228134 -0.0084152361 0.42800003
-0.026758099 -0.0084152361 0.42800003
-0.026288062 -0.0084152361 0.42800003
-0.025818028 -0.0084152361 0.42800003
-0.025347993 -0.0084152361 0.42800003
-0.024936084 -0.0084348982 0.42900002
-0.02446495 -0.0084348982 0.42900002
-0.023993816 -0.0084348982 0.42900002
-0.023522682 -0.0084348982 0.42900002
-0.023051551 -0.0084348982 0.42900002
-0.022580417 -0.0084348982 0.42900002
-0.022160819 -0.0084545603 0.43000001
-0.021688588 -0.0084545603 0.43000001
-0.021216355 -0.0084545603 0.43000001
-0.020744124 -0.0084545603 0.43000001
-0.020271894 -0.0084545603 0.43000001
-0.019799661 -0.0084545603 0.43000001
-0.01932743 -0.0084545603 0.43000001
-0.018899048 -0.0084742215 0.43100002
-0.018425718 -0.0084742215 0.43100002
-0.017952388 -0.0084742215 0.43100002
-0.017479058 -0.0084742215 0.43100002
-0.017005727 -0.0084742215 0.43100002
-0.016532397 -0.0084742215 0.43100002
-0.016096327 -0.0084938835 0.43200001
-0.0156219 -0.0084938835 0.43200001
-0.015147472 -0.0084938835 0.43200001
-0.014673044 -0.0084938835 0.43200001
-0.014198615 -0.0084938835 0.43200001
-0.013724187 -0.0084938835 0.43200001
-0.01324976 -0.0084938835 0.43200001
-0.012775331 -0.0084938835 0.43200001
-0.012300903 -0.0084938835 0.43200001
-0.011853851 -0.0085135456 0.43300003
-0.011378325 -0.0085135456 0.43300003
-0.010902799 -0.0085135456 0.43300003
-0.010427272 -0.0085135456 0.43300003
-0.0099517461 -0.0085135456 0.43300003
-0.0094762193 -0.0085135456 0.43300003
-0.0090006934 -0.0085135456 0.43300003
-0.0085251667 -0.0085135456 0.43300003
-0.0080496408 -0.0085135456 0.43300003
-0.0075741145 -0.0085135456 0.43300003
-0.0070985882 -0.0085135456 0.43300003
-0.0066230618 -0.0085135456 0.43300003
-0.0061475355 -0.0085135456 0.43300003
-0.0056720092 -0.0085135456 0.43300003
-0.0051964829 -0.0085135456 0.43300003
-0.0047318595 -0.0085332068 0.43400002
-0.0042552352 -0.0085332068 0.43400002
-0.0037786106 -0.0085332068 0.43400002
-0.0033019863 -0.0085332068 0.43400002
-0.0028253617 -0.0085332068 0.43400002
-0.0023487371 -0.0085332068 0.43400002
-0.0018721126 -0.0085332068 0.43400002
-0.0013954882 -0.0085332068 0.43400002
-0.00091886363 -0.0085332068 0.43400002
-0.00044223911 -0.0085332068 0.43400002
3.4464614e-05 -0.0085528689 0.43500003
0.00051218731 -0.0085528689 0.43500003
0.0009899101 -0.0085528689 0.43500003
0.0014676328 -0.0085528689 0.43500003
0.0019453554 -0.0085528689 0.43500003
0.0024230781 -0.0085528689 0.43500003
0.0029008009 -0.0085528689 0.43500003
0.0033785235 -0.0085528689 0.43500003
0.0038562461 -0.0085528689 0.43500003
0.0043339687 -0.0085528689 0.43500003
0.0048116916 -0.0085528689 0.43500003
0.0053015742 -0.0085725309 0.43600002
0.0057803951 -0.0085725309 0.43600002
0.006259216 -0.0085725309 0.43600002
0.0067380369 -0.0085725309 0.43600002
0.0072168577 -0.0085725309 0.43600002
0.0076956786 -0.0085725309 0.43600002
0.0081744995 -0.0085725309 0.43600002
0.0086533204 -0.0085725309 0.43600002
0.0091321422 -0.0085725309 0.43600002
0.0096109631 -0.0085725309 0.43600002
0.010089784 -0.0085725309 0.43600002
0.010568605 -0.0085725309 0.43600002
0.011047426 -0.0085725309 0.43600002
0.011526247 -0.0085725309 0.43600002
0.012005067 -0.0085725309 0.43600002
0.012483888 -0.0085725309 0.43600002
0.012962709 -0.0085725309 0.43600002
0.01344153 -0.0085725309 0.43600002
0.013920352 -0.0085725309 0.43600002
0.014399173 -0.0085725309 0.43600002
0.014912116 -0.008592193 0.43700001
0.015392035 -0.008592193 0.43700001
0.015871955 -0.008592193 0.43700001
0.016351873 -0.008592193 0.43700001
0.016831793 -0.008592193 0.43700001
0.017311713 -0.008592193 0.43700001
0.017832344 -0.0086118542 0.43800002
0.018313363 -0.0086118542 0.43800002
0.01879438 -0.0086118542 0.43800002
0.019275397 -0.0086118542 0.43800002
0.019756414 -0.0086118542 0.43800002
0.020237433 -0.0086118542 0.43800002
0.020765752 -0.0086315162 0.43900001
0.021247867 -0.0086315162 0.43900001
0.021779479 -0.0086511774 0.44000003
0.022262694 -0.0086511774 0.44000003
0.022745907 -0.0086511774 0.44000003
0.023281915 -0.0086708395 0.44100001
0.023766227 -0.0086708395 0.44100001
0.02430553 -0.0086905006 0.44200003
0.024790939 -0.0086905006 0.44200003
0.025333535 -0.0087101627 0.44300002
0.025820045 -0.0087101627 0.44300002
0.026306553 -0.0087101627 0.44300002
0.026793061 -0.0087101627 0.44300002
0.02734115 -0.0087298248 0.44400004
0.027828755 -0.0087298248 0.44400004
0.028380137 -0.0087494869 0.44500002
0.028868843 -0.0087494869 0.44500002
0.029357547 -0.0087494869 0.44500002
0.029846253 -0.0087494869 0.44500002
0.030403126 -0.008769148 0.44600001
0.030892929 -0.008769148 0.44600001
0.031453095 -0.0087888101 0.44700003
0.031943999 -0.0087888101 0.44700003
0.032434899 -0.0087888101 0.44700003
0.03307312 -0.0088281333 0.44900003
0.033566218 -0.0088281333 0.44900003
0.03413517 -0.0088477954 0.45000002
0.034629367 -0.0088477954 0.45000002
0.035201617 -0.0088674575 0.45100003
0.035696909 -0.0088674575 0.45100003
0.036272451 -0.0088871187 0.45200002
0.036768846 -0.0088871187 0.45200002
0.037347682 -0.0089067807 0.45300001
0.037845172 -0.0089067807 0.45300001
0.038427304 -0.0089264428 0.45400003
0.038925894 -0.0089264428 0.45400003
0.039424483 -0.0089264428 0.45400003
0.039923072 -0.0089264428 0.45400003
0.040510692 -0.0089461049 0.45500001
0.04101038 -0.0089461049 0.45500001
-0.095047705 -0.0085938936 0.46300003
-0.094539233 -0.0085938936 0.46300003
-0.09403076 -0.0085938936 0.46300003
-0.093320303 -0.0085753324 0.46200001
-0.092812926 -0.0085753324 0.46200001
-0.092105754 -0.0085567711 0.46100003
-0.091599479 -0.0085567711 0.46100003
-0.090895601 -0.0085382098 0.46000001
-0.090390421 -0.0085382098 0.46000001
-0.089885242 -0.0085382098 0.46000001
-0.089380071 -0.0085382098 0.46000001
-0.088874891 -0.0085382098 0.46000001
-0.088369712 -0.0085382098 0.46000001
-0.087864533 -0.0085382098 0.46000001
-0.087359354 -0.0085382098 0.46000001
-0.086854175 -0.0085382098 0.46000001
-0.086161286 -0.0085196486 0.45900002
-0.085657202 -0.0085196486 0.45900002
-0.085153125 -0.0085196486 0.45900002
-0.084649041 -0.0085196486 0.45900002
-0.084144965 -0.0085196486 0.45900002
-0.083136804 -0.0085196486 0.45900002
-0.08263272 -0.0085196486 0.45900002
-0.082128644 -0.0085196486 0.45900002
-0.065892436 -0.0083154738 0.44800001
